# .PCD v0.7 - Point Cloud Data file format
VERSION 0.7
FIELDS x y z
SIZE 4 4 4
TYPE F F F
COUNT 1 1 1
WIDTH 703
HEIGHT 1
VIEWPOINT 0 0 0 1 0 0 0
POINTS 703
DATA ascii
-0.0415763 -0.035397299 -0.69497102
-0.0437718 -0.0273846 -0.69489598
-0.040029299 -0.0534762 -0.69322097
-0.035762399 -0.032978099 -0.69371498
-0.048655801 -0.026727 -0.69496
-0.047829598 -0.0159705 -0.69288999
-0.0406597 -0.046797 -0.69459999
-0.0380763 -0.0409973 -0.69430703
-0.0382079 -0.0265765 -0.69372898
-0.0498458 -0.0225082 -0.693555
-0.030894199 -0.038992401 -0.69238198
-0.030732101 -0.034981702 -0.692325
-0.033989199 -0.0303661 -0.69305199
-0.0457673 -0.0169445 -0.69331902
-0.043788001 -0.061600499 -0.69147402
-0.087631002 -0.052028801 -0.69138801
-0.033255398 -0.053535901 -0.691221
-0.0342419 -0.049044799 -0.69247401
-0.0343684 -0.044530898 -0.69317597
-0.0892196 -0.027973801 -0.69122702
-0.029223099 -0.0272542 -0.69149101
-0.086678401 -0.0223886 -0.69147199
-0.039119702 -0.0169055 -0.69212401
-0.0290263 -0.048678402 -0.69088101
-0.028491899 -0.043207899 -0.69141102
-0.025097299 -0.033997301 -0.69050902
-0.0283767 -0.0205114 -0.69006902
-0.0346938 -0.0245682 -0.69264001
-0.041415699 -0.058573902 -0.69210702
-0.086659297 -0.058271199 -0.69106197
-0.023491399 -0.027956201 -0.68957001
-0.0511439 -0.0212852 -0.69168103
-0.086726598 -0.0177534 -0.69177002
-0.082396999 -0.0166511 -0.68975401
-0.033274598 -0.0155299 -0.69044501
-0.038435001 -0.065978698 -0.68780899
-0.080463998 -0.059737999 -0.68815202
-0.086235702 -0.048083499 -0.69003397
-0.0226692 -0.0367973 -0.68968898
-0.0797792 -0.0245828 -0.688016
-0.039210498 -0.0104282 -0.69012201
-0.0246071 -0.049817201 -0.689089
-0.022575499 -0.041256402 -0.68948799
-0.0316641 -0.0123154 -0.68894398
-0.083838999 -0.0140308 -0.68991601
-0.0350555 -0.060805801 -0.68909001
-0.029300001 -0.0560604 -0.68897402
-0.021168699 -0.045168702 -0.68870902
-0.018176001 -0.0384598 -0.68806702
-0.0224487 -0.024591099 -0.68879098
-0.027313201 -0.016823599 -0.68887198
-0.0249185 -0.0117864 -0.68646801
-0.022448 -0.055240698 -0.686652
-0.0199816 -0.046920702 -0.68801302
-0.017232399 -0.033909801 -0.68771899
-0.085504398 -0.010305 -0.689358
-0.084058002 -0.064320996 -0.68899697
-0.030931899 -0.060982902 -0.68748999
-0.079316601 -0.051154099 -0.68743998
-0.0109678 -0.046525698 -0.684636
-0.074681804 -0.021141 -0.68587101
-0.079789601 -0.0209572 -0.68851602
-0.030390801 -0.0087074796 -0.68705499
-0.039887801 -0.0070358999 -0.688748
-0.0822303 -0.068113998 -0.686391
-0.0186338 -0.051008198 -0.68657303
-0.016202999 -0.0440154 -0.68691999
-0.016146399 -0.029186901 -0.68706101
-0.075498201 -0.066610701 -0.68363202
-0.079841599 -0.056266099 -0.68805301
-0.076956302 -0.047295202 -0.68568897
-0.078087397 -0.028405299 -0.68617499
-0.0205933 -0.019537 -0.68713897
-0.078665197 -0.0123529 -0.68678302
-0.080617398 -0.0077295699 -0.68531901
-0.0304101 -0.064180501 -0.68548501
-0.078842796 -0.062208299 -0.68690401
-0.071614496 -0.057540599 -0.68430501
-0.0083485097 -0.042222299 -0.68427497
-0.0114644 -0.0355855 -0.68566
-0.0095139602 -0.029145099 -0.68464798
-0.01401 -0.024671501 -0.68570602
-0.072893001 -0.0239549 -0.684515
-0.019931201 -0.0164383 -0.68613702
-0.084700502 -0.0045309798 -0.68472999
-0.086758703 -0.074322298 -0.68302602
-0.020413101 -0.057449602 -0.68495399
-0.074074797 -0.052884001 -0.68535602
-0.0097364504 -0.039159801 -0.68497598
-0.073126502 -0.0291846 -0.683622
-0.074548103 -0.0161964 -0.68574899
-0.075865202 -0.00840447 -0.68358999
-0.019677 -0.0106653 -0.68397999
-0.085166603 -0.071580201 -0.68508601
-0.076120101 -0.064797297 -0.68481499
-0.0138501 -0.054483801 -0.68368298
-0.077604704 -0.033082101 -0.68422502
-0.0044010398 -0.034806699 -0.68324101
-0.072989903 -0.017729901 -0.68515098
-0.086448297 -0.00194121 -0.68298602
-0.067583099 -0.062422801 -0.68140203
-0.069831401 -0.0598699 -0.68324101
-0.0102839 -0.049842302 -0.68376303
-0.0048125102 -0.04699 -0.68246198
-0.0054486399 -0.027256999 -0.68300498
-0.0688584 -0.019809701 -0.68305898
-0.0111931 -0.0195862 -0.68370199
-0.0145995 -0.0152349 -0.68381399
-0.073784597 -0.011722 -0.68424499
-0.0682211 -0.0106359 -0.68158698
-0.034561101 -0.0036037699 -0.68543798
-0.037384 -0.070611 -0.68385899
-0.0075359899 -0.053252898 -0.681867
-0.00185792 -0.040192299 -0.68231601
-0.069168098 -0.00711727 -0.68022001
-0.0288324 -0.0058067301 -0.68492103
-0.080505297 -0.074287601 -0.68019998
-0.034279499 -0.071999103 -0.68102902
-0.031370699 -0.068167903 -0.68322402
-0.021951901 -0.065673202 -0.68074799
-0.076122098 -0.069652401 -0.68210202
-0.0207817 -0.060757998 -0.68344498
0.000172947 -0.049813598 -0.68040001
-0.074268103 -0.0050470498 -0.68062502
-0.086627498 0.00019970399 -0.68047601
-0.066899203 -0.0650976 -0.67979902
-0.0092355702 -0.057085998 -0.68101001
0.0047236802 -0.037101999 -0.68068099
0.0020085501 -0.0324554 -0.68119001
-0.0053615202 -0.021466101 -0.68204403
-0.039255101 0.00177048 -0.68265998
-0.034164902 0.0034389 -0.679537
-0.0127529 -0.062926702 -0.67903298
0.0033829301 -0.043029498 -0.68067098
0.00096974499 -0.0265914 -0.68087798
-0.017831299 -0.0076744701 -0.68175501
-0.0275441 -0.0031631801 -0.68266302
-0.0791099 -0.0033031099 -0.68087399
-0.032939699 0.00073819997 -0.68166602
-0.038617499 0.0052811801 -0.678846
-0.078698397 -0.071533903 -0.68199497
-0.0071735 -0.0598897 -0.67897499
0.0098151397 -0.044567998 -0.67911202
0.0100134 -0.0389954 -0.67961699
0.0088270996 -0.0319658 -0.679479
0.0080406899 -0.026058899 -0.67892599
-0.0037044799 -0.016212299 -0.68015099
-0.0042410502 -0.0123962 -0.67886102
-0.0102708 -0.012247 -0.68108398
-0.0162032 -0.0049993601 -0.679524
-0.080040202 -0.000235883 -0.67782599
-0.072346203 -0.072457403 -0.67736697
-0.067926899 -0.0685862 -0.67801303
-0.019463699 -0.0675193 -0.678069
-0.0062332698 -0.062819697 -0.67686403
0.0073448499 -0.053612798 -0.67765599
0.000213141 -0.053230099 -0.67952001
0.0081634503 -0.048791401 -0.67861599
0.014619 -0.040035602 -0.67878997
-0.0091802301 -0.0096243797 -0.679425
-0.088368498 -0.077697799 -0.67957401
-0.03926 -0.075410903 -0.67961401
-0.022855399 -0.072246201 -0.67441702
-0.01287 -0.066304602 -0.67628402
-0.00069318799 -0.056990299 -0.67845201
0.017511301 -0.045182601 -0.67784202
0.019487699 -0.041934401 -0.678065
0.015848 -0.036622699 -0.67863297
0.0152987 -0.0325098 -0.67844599
0.0142603 -0.025561901 -0.67770702
0.0109008 -0.0205053 -0.67724103
0.0044686901 -0.0204261 -0.67868298
0.0034258901 -0.0145038 -0.67712599
-0.066385701 -0.0054067001 -0.67813599
-0.022148499 -0.0010373699 -0.67888498
0.0088481596 -0.056075599 -0.67647099
0.026996501 -0.045599401 -0.67664999
0.027548701 -0.041522302 -0.677284
0.023482401 -0.0380398 -0.67794198
0.032615699 -0.031087 -0.67733002
0.0237683 -0.033452898 -0.67789698
0.025909999 -0.026322 -0.67720199
0.0217111 -0.0265854 -0.67732298
-0.032060198 0.0055996198 -0.67638701
-0.078749001 -0.075884297 -0.677185
0.0139278 -0.052253801 -0.67676502
0.0208242 -0.047137901 -0.67698699
0.034278601 -0.0397592 -0.67668903
0.031832501 -0.036139902 -0.67736101
0.040417802 -0.035408702 -0.67617899
0.038404901 -0.029144799 -0.67659801
0.030584 -0.0250437 -0.67684001
0.026964899 -0.0194561 -0.67601597
0.0143829 -0.0183086 -0.67625201
-0.0019166101 -0.00857474 -0.67595297
-0.066040099 -0.0028152701 -0.67583299
-0.089279398 0.00162617 -0.67936701
-0.037886702 0.0079955403 -0.67489803
-0.026286099 -0.070459597 -0.67843199
-0.0138584 -0.0692719 -0.67355001
0.000324578 -0.060055401 -0.67668903
0.0079398099 -0.0593284 -0.67507601
0.041140001 -0.041188098 -0.67526102
0.020818099 -0.019187501 -0.67595398
0.0071986099 -0.0148643 -0.67628998
-0.0093798796 -0.0066264402 -0.677706
-0.071684197 -0.00265643 -0.67746502
0.029653201 -0.052083299 -0.67436701
0.034023698 -0.049969099 -0.67420697
0.031631101 -0.045796402 -0.67593497
0.027218901 -0.0163808 -0.67516297
0.0133968 -0.0140446 -0.674869
-0.0115882 -0.0035153001 -0.676274
-0.026089899 0.0038427799 -0.67598599
-0.081731901 0.0020840799 -0.67531103
-0.087714396 -0.0796289 -0.676238
-0.069501899 -0.073645003 -0.67382199
-0.065863803 -0.071093 -0.67421198
0.00290165 -0.0619388 -0.67473698
0.0149294 -0.056938 -0.674712
0.0213237 -0.051562101 -0.67565298
0.040510699 -0.046655599 -0.67378598
0.0057767201 -0.0099771703 -0.67422903
-0.075999103 0.00136186 -0.67409003
-0.036347602 -0.077782303 -0.67434102
-0.071684003 -0.075626202 -0.67255902
0.0143557 -0.0636774 -0.670268
0.019989301 -0.0150665 -0.67463398
-0.025002999 0.0059223701 -0.67282701
-0.033615801 0.0076737101 -0.67389601
-0.0875533 -0.081674501 -0.67200297
-0.0303555 -0.076066896 -0.67318398
-0.0229489 -0.073798999 -0.672077
-0.0020576201 -0.065168902 -0.67360902
0.0218878 -0.056194101 -0.67378002
-0.100642 -0.017722299 -0.67289501
0.0114561 -0.0099791503 -0.67299801
-0.067286097 -0.00032962 -0.67315102
-0.012955 -0.00109424 -0.67465699
-0.083083197 0.0041438099 -0.67219597
-0.012319 -0.070853703 -0.67048198
0.023452399 -0.058873702 -0.67196202
0.017948 -0.0124949 -0.67357898
-0.0080221603 -0.068342596 -0.67226899
0.0153382 -0.060850799 -0.67217302
0.0288947 -0.056375999 -0.67271203
0.0215312 -0.010471 -0.67232102
-0.0041671498 -0.0030296701 -0.67264301
-0.077666201 0.0029546099 -0.672194
-0.0114551 0.00137196 -0.67123199
-0.017327899 0.0024705101 -0.67277199
-0.026793599 0.0086214496 -0.669213
-0.044340901 0.0102483 -0.67296499
-0.077672198 -0.078270301 -0.67235398
0.0342151 -0.055168901 -0.67221802
-0.100582 -0.0116848 -0.67021602
0.010678 -0.0069466098 -0.67106497
-0.00088236103 -0.0059415898 -0.673724
-0.00103107 -0.0019888901 -0.67044002
-0.070930399 -0.077018999 -0.66920102
0.0014352 -0.066640601 -0.671148
0.0151921 -0.0083200904 -0.67141199
0.0046313498 -0.00176062 -0.668374
-0.047819801 0.01081 -0.67171198
-0.033666201 -0.0795886 -0.668585
-0.022069201 -0.075890101 -0.66741502
-0.0148367 -0.072479203 -0.66923201
0.035087999 -0.058799502 -0.67014199
0.0161593 -0.0042523001 -0.66832203
0.0066016498 -0.00598882 -0.67127401
-0.067614101 0.0015603401 -0.67037201
0.0308237 -0.0610044 -0.66948003
0.042194799 -0.053006299 -0.67093903
-0.0870445 0.00533472 -0.671148
-0.076964103 -0.080872402 -0.66531199
-0.073597103 -0.078901798 -0.66725302
2.6347099e-05 -0.069513001 -0.66827101
0.156459 -0.0229067 -0.66682398
0.0214015 -0.0053551099 -0.668818
0.0094703902 -0.0026444599 -0.66789401
-0.074682899 0.00387963 -0.66923302
0.0153517 -0.0669218 -0.66735202
0.0293348 -0.0068854 -0.66931498
-0.065144204 0.0028492799 -0.66711497
-0.035423499 0.011007 -0.66836298
0.0083105303 -0.068709403 -0.66713899
0.158329 -0.0291944 -0.66450298
0.15508901 -0.0097374404 -0.66593599
-0.082876302 -0.082621299 -0.665851
0.0339729 -0.00291211 -0.66585302
-0.075176299 0.0058226199 -0.66496199
-0.0457027 0.0133088 -0.66747397
0.024015401 -0.081404701 -0.66362101
-0.093376301 0.0083473697 -0.665851
0.013983 -0.085263699 -0.66393203
-0.0281613 -0.078261502 -0.66681999
-0.10108 -0.0175604 -0.6656
0.156516 -0.0175368 -0.66486299
-0.089824103 -0.084404796 -0.66657102
-0.072369598 -0.079498701 -0.664455
0.15811799 -0.0252061 -0.66342598
0.022920299 0.00293901 -0.661892
-0.081512198 0.00733425 -0.66389197
-0.041241098 0.0124717 -0.66789502
0.15978 -0.037147298 -0.66261703
0.157231 -0.0150018 -0.66167802
0.028733701 0.00131467 -0.66304702
-0.0317058 0.0114817 -0.66535002
-0.037120901 -0.0822604 -0.66412699
-0.075871103 -0.081586897 -0.66196799
0.13994201 -0.049018901 -0.66171998
0.140242 -0.046415199 -0.66418201
0.15578499 -0.0087973103 -0.66362298
-0.077637099 0.0081241401 -0.65971297
-0.087206401 0.0093063498 -0.66120303
-0.0270108 0.010537 -0.66517001
-0.0365851 0.0131932 -0.66392601
-0.091048703 -0.087411597 -0.65821999
-0.032499999 -0.0803084 -0.66520202
-0.024989299 -0.078426898 -0.663252
0.15955999 -0.031022299 -0.66095102
0.158618 -0.0233719 -0.66063797
0.15493 -0.0025168001 -0.66291499
-0.030574599 0.0125296 -0.661933
0.0153735 -0.0865153 -0.66051197
0.025103001 -0.084262401 -0.65775901
0.030890999 0.0039344002 -0.66071302
-0.042877201 -0.084701598 -0.66198301
0.160881 -0.038897298 -0.65745097
-0.101242 -0.0108754 -0.66007298
-0.071565397 0.0065025399 -0.66129601
0.15217599 0.0079556201 -0.65988702
-0.080762699 -0.083924599 -0.659648
-0.0325462 -0.081621498 -0.66016299
-0.070164099 -0.080568001 -0.658512
-0.026612399 -0.079615399 -0.66073602
-0.093152501 0.0097937202 -0.661672
-0.035464101 0.01464 -0.65887302
0.0195763 -0.085753001 -0.659168
0.160548 -0.042814601 -0.65998399
0.15848 -0.0183031 -0.65816802
0.15699799 -0.0108859 -0.65993702
-0.0765763 -0.083370797 -0.65675098
0.0298103 -0.081455901 -0.65961599
0.160384 -0.0346127 -0.65859699
0.153807 0.0036124899 -0.66021597
0.0063677998 -0.090071902 -0.65784401
0.0141365 -0.088076599 -0.65627497
-0.104112 -0.042484801 -0.65718901
0.156381 -0.0054500098 -0.65816402
-0.0666629 0.0067538298 -0.65662098
-0.073746502 0.0084213102 -0.65632498
0.14978901 0.0116308 -0.65868998
-0.088760696 0.0114153 -0.65497398
-0.0834345 -0.086084902 -0.65497202
0.14253201 -0.0564055 -0.655173
-0.101521 -0.0061723101 -0.65561301
0.160191 -0.028397299 -0.65570098
0.15844101 -0.0146286 -0.655007
0.00268919 -0.0916861 -0.65452802
-0.034320999 -0.0832619 -0.652179
-0.104373 -0.038519699 -0.65333003
-0.10195 -0.0125868 -0.65403402
0.155366 0.00035091699 -0.65597099
-0.081105299 0.0100439 -0.65513498
-0.040832601 -0.0849526 -0.65627003
-0.071941398 -0.082416996 -0.65398097
-0.033282701 -0.082385898 -0.65727597
0.137963 -0.051291399 -0.65114099
0.15707199 -0.0057562599 -0.65354002
-0.091849603 -0.0895897 -0.64947701
-0.045189399 -0.086647801 -0.653184
-0.0284824 -0.0814998 -0.65194899
-0.085238799 0.012075 -0.65011901
0.15004399 0.014127 -0.65271503
0.16121601 -0.030929299 -0.64876699
0.158455 -0.0110723 -0.64975101
0.154751 0.00337872 -0.65416402
-0.067165896 0.0080099097 -0.65027303
-0.087470099 -0.088023998 -0.652026
0.070381902 -0.063462101 -0.650801
-0.104588 -0.035254698 -0.65278798
0.00667634 -0.091732897 -0.650244
-0.068737902 -0.081740402 -0.65163302
0.142178 -0.057579499 -0.650949
-0.104583 -0.033165101 -0.65094203
0.153014 0.0084929802 -0.65360302
-0.101054 -0.068158902 -0.65281498
0.114708 -0.0532322 -0.65129799
-0.104208 -0.044672299 -0.65138102
0.160348 -0.0248973 -0.650801
0.015723299 -0.088496603 -0.65087301
-0.0378929 -0.084611401 -0.64974099
0.161579 -0.036447302 -0.65010101
-0.102898 -0.020466899 -0.64618403
0.15933201 -0.0192098 -0.65342599
-0.102527 -0.0151795 -0.64955401
-0.102055 -0.0079707997 -0.65180898
0.066357203 0.00617541 -0.649867
0.15138599 0.0124654 -0.649019
-0.097265497 0.0131094 -0.65170699
0.14808001 0.017639 -0.64835697
-0.0488833 -0.087298803 -0.651694
-0.0475448 -0.087228097 -0.65244102
-0.077176601 -0.085476503 -0.64868498
0.109792 -0.057581201 -0.64797699
-0.075876303 0.0099973399 -0.651151
-0.093026303 0.0145422 -0.64380097
-0.083922997 -0.087597303 -0.64951599
-0.071888298 -0.083537802 -0.64808798
0.137179 -0.052026302 -0.64702803
-0.104391 -0.037125401 -0.64653498
-0.085540898 0.0137683 -0.64183998
-0.091389902 0.0128796 -0.651353
0.0204811 0.0210592 -0.64752901
-0.079206601 -0.085532203 -0.65169102
-0.045313802 -0.086877897 -0.64475
0.140259 -0.056359001 -0.64195597
-0.104816 -0.0304098 -0.64410698
-0.074016601 0.0101526 -0.64694601
0.0036496001 -0.092396997 -0.64975703
-0.00352194 -0.091981404 -0.64631701
-0.101776 -0.068138398 -0.64256901
0.143424 -0.059475601 -0.646429
0.113233 -0.055675302 -0.64614898
0.162044 -0.038093999 -0.64662898
-0.102741 -0.0117286 -0.64616299
-0.070121698 -0.083173297 -0.64460599
0.117398 -0.052692 -0.64467502
0.15933201 -0.0154945 -0.64695102
0.024396701 0.0191845 -0.64287299
0.16209599 -0.039035998 -0.645522
-0.105267 -0.0241023 -0.64678299
-0.080120102 0.0116262 -0.64747602
-0.086164601 -0.089760303 -0.64254898
0.0154161 -0.088338703 -0.64582902
-0.079537302 -0.0873129 -0.64338499
0.043630999 0.0110424 -0.645962
0.016633499 0.0208892 -0.643897
-0.0398045 -0.085102104 -0.64279503
0.161145 -0.028484801 -0.64528799
-0.0791087 0.0118771 -0.64379001
7.0675203e-05 -0.092573203 -0.64344603
0.0051802299 -0.092246301 -0.64625001
-0.033889201 -0.083118103 -0.64307898
-0.105237 -0.025981801 -0.64150298
0.16029 -0.022201899 -0.64714801
0.15072601 0.0133983 -0.64577699
0.037680801 0.0146113 -0.64174998
-0.0367423 -0.0836595 -0.63837898
-0.030292699 -0.082203798 -0.647237
0.144014 -0.060957301 -0.63909501
0.120124 -0.051826999 -0.64257598
0.122594 -0.050228801 -0.64438301
0.16170201 -0.033997301 -0.64205098
-0.102754 -0.00081293099 -0.64218497
0.0437181 0.0113964 -0.64350599
0.018739199 0.019544199 -0.64116198
-0.089857601 -0.090937898 -0.63980103
0.16037001 -0.022598401 -0.63945198
0.15939599 -0.015845301 -0.63941997
-0.0679489 0.0086092204 -0.64197099
-0.071435101 0.0096113198 -0.644584
0.00182367 -0.0912164 -0.636801
0.16061001 -0.0240865 -0.64085603
-0.0788505 0.0119763 -0.64063501
-0.074203402 -0.0851565 -0.64095497
-0.026595199 -0.080930002 -0.64117998
0.108809 -0.059023999 -0.64261901
0.117614 -0.053497098 -0.636518
-0.104176 -0.042303499 -0.64408702
-0.105141 -0.0277822 -0.639781
0.16061001 -0.024528001 -0.638897
-0.103154 -0.021035099 -0.64077401
0.15925799 -0.0152438 -0.63717502
-0.0956861 0.0149377 -0.64210898
0.0332027 0.0160487 -0.63928598
0.0276762 0.017593799 -0.63990003
-0.105087 -0.0305863 -0.63830101
0.0411979 0.0119567 -0.63783503
0.019117 0.017728001 -0.63762897
0.144078 0.0203277 -0.63930798
-0.043530099 -0.086167403 -0.63994199
-0.027041901 -0.0806899 -0.63589799
0.16106001 -0.028397299 -0.637501
-0.103286 -0.0162293 -0.63906097
0.15344299 0.0046407301 -0.63488698
-0.074901298 0.0104896 -0.63663399
0.147672 0.017074101 -0.641837
-0.089454003 -0.091106303 -0.63663799
0.137834 -0.0542049 -0.63556898
0.151996 0.0094471704 -0.63990498
-0.0919763 0.0154059 -0.63478798
0.0271526 0.015698001 -0.63643801
-0.082017802 -0.088923201 -0.63875002
-0.047491301 -0.087382503 -0.64266098
-0.101954 -0.070047297 -0.63933802
0.116331 -0.054274298 -0.63548702
-0.089971602 0.014657 -0.64140099
0.0146791 0.019169001 -0.63886899
-0.083972096 -0.089799203 -0.63423699
0.0039784699 -0.090716504 -0.63697797
-0.102324 -0.065076299 -0.63716102
0.113283 -0.0565954 -0.63776499
0.161451 -0.040831499 -0.63573301
0.032206502 0.0148469 -0.63595003
-0.076711901 -0.086435303 -0.63782901
-0.072288699 -0.084092803 -0.63510001
0.158843 -0.055068702 -0.63393003
0.120512 -0.0524152 -0.63578302
-0.103073 -0.0105703 -0.640935
0.150426 0.0117747 -0.63838702
-0.087380797 0.0147443 -0.63205701
0.0155908 0.0160996 -0.63494098
-0.0135763 0.026436299 -0.63435102
-0.0039023799 -0.0917909 -0.63780499
0.14198899 -0.0588888 -0.63470399
0.161116 -0.045159999 -0.63570398
0.14717101 0.014617 -0.63497603
-0.00073979102 -0.0915621 -0.63672
0.1604 -0.051321499 -0.63813901
0.16135301 -0.034495302 -0.635481
0.160284 -0.0235139 -0.63307202
-0.074144296 0.0095018698 -0.63345999
0.038480598 0.0121263 -0.63486397
0.033689398 0.0130374 -0.63379502
0.0245346 0.0138021 -0.63387102
-0.024278499 0.023043601 -0.63043898
-0.031425498 -0.0816283 -0.635297
-0.102906 -0.059284799 -0.63247502
0.118068 -0.0527873 -0.63139999
-0.103688 -0.025400501 -0.63486898
-0.103462 -0.022410801 -0.63713902
0.044210602 0.0090010203 -0.634691
0.040491801 0.0083898697 -0.63090003
-0.081205599 0.0128774 -0.63462597
-0.0284502 0.023056 -0.63542002
-0.080543101 -0.0884315 -0.63485599
-0.103509 -0.0093441801 -0.634624
-0.103448 -0.00073636998 -0.632999
0.030722801 0.0127251 -0.63278002
0.0144012 0.0120326 -0.63119501
-0.033934802 0.021903399 -0.63576901
-0.040633 -0.084267497 -0.63077801
0.159315 -0.0178451 -0.629013
-0.0774315 0.0109549 -0.632276
0.022831799 0.0116286 -0.63154
-0.0283162 0.021833699 -0.63101202
0.11087 -0.0585411 -0.63373899
0.160161 -0.049036901 -0.63202798
0.161036 -0.034697302 -0.63032597
-0.102343 -0.0737499 -0.632002
-0.103967 -0.021948401 -0.62835598
-0.085480303 0.0136832 -0.62775397
-0.089720003 0.0150937 -0.629381
-0.078635998 -0.086915702 -0.62969202
-0.0718925 -0.083134502 -0.63005298
-0.031286102 -0.081058897 -0.62853301
-0.102784 -0.068712898 -0.63045698
0.16096 -0.040472299 -0.62945098
0.158866 -0.016497299 -0.62560099
0.0326114 0.01036 -0.63070399
0.160538 -0.0450752 -0.62904799
0.15727 -0.0076928502 -0.62828499
-0.103926 -0.0117393 -0.62766999
0.155821 -0.00320659 -0.62739801
0.0322924 0.0071823401 -0.62728798
0.0068454598 0.0114767 -0.62914401
-0.0188282 0.0245228 -0.630243
0.15546399 -0.00047955799 -0.63333201
0.14907999 0.0094044898 -0.62950301
0.0201739 0.0097609404 -0.629251
0.0142686 0.0104689 -0.62934601
0.019173101 0.0078312503 -0.62510997
-0.070990197 -0.081857897 -0.62733197
0.139119 -0.055387001 -0.62902701
-0.103758 -0.0169622 -0.631293
0.0289478 0.0087586101 -0.62852597
0.144013 0.0154842 -0.62899601
-0.076112501 -0.085021898 -0.62730497
-0.041276101 -0.083438702 -0.625579
-0.103265 -0.0527009 -0.62667799
-0.104169 -0.016497299 -0.62392801
0.15252601 0.00263915 -0.624511
-0.035922199 -0.082670197 -0.63028198
-0.036042199 -0.081565797 -0.62484998
-0.070292398 -0.080595702 -0.62561297
0.160833 -0.0301814 -0.63102299
0.062514298 0.00616844 -0.62739301
-0.103004 -0.065956697 -0.62905699
0.16045199 -0.038437899 -0.62506199
0.159724 -0.023016101 -0.62551302
0.15644 -0.0069925301 -0.62457597
0.036197301 0.0055807 -0.62627298
0.15157899 0.0059456499 -0.63018399
0.0254183 0.00705605 -0.625543
-0.076175399 0.0090188999 -0.62850797
0.146308 0.0126575 -0.62858999
-0.102774 -0.0729241 -0.62625599
0.158061 -0.0125117 -0.62612301
0.038390901 0.0043569198 -0.624623
0.0336769 0.0031451001 -0.62210101
0.0113629 0.0083776498 -0.62251502
0.15443601 -0.00037349699 -0.62583399
0.109512 0.00265544 -0.62310398
0.068349101 0.0074221101 -0.62391001
-0.069999903 -0.078781903 -0.62310302
0.068893097 -0.064723998 -0.623366
0.15876301 -0.051515501 -0.624448
-0.104514 -0.0087754298 -0.620906
-0.104089 -0.00249747 -0.62593299
0.148735 0.0076034302 -0.622199
-0.103022 -0.069872297 -0.624201
0.138827 -0.053923 -0.62325197
0.160356 -0.0428239 -0.62530899
0.159989 -0.031860799 -0.62389201
0.15448201 -0.00326747 -0.620368
0.019487601 0.0059814998 -0.62157202
-0.039964899 -0.080914102 -0.620363
-0.10321 -0.072596699 -0.61969501
0.063567601 0.0057430798 -0.62303603
-0.103209 -0.063591003 -0.62343699
0.15907 -0.0298687 -0.61844301
0.158306 -0.016409701 -0.62088102
-0.104727 -0.0128059 -0.61762202
-0.104669 -0.001887 -0.619277
0.15134799 0.0019537001 -0.61659902
0.111823 0.000284696 -0.62225801
0.0275156 0.00399186 -0.62138402
-0.103412 -0.0594051 -0.61953098
0.159495 -0.0479973 -0.62297601
0.15909 -0.0342598 -0.61908001
0.156129 -0.0098783299 -0.61993998
0.106276 0.0024773099 -0.61951101
0.10314 0.00493707 -0.62085801
0.146648 0.0101691 -0.62184602
0.068694599 -0.0637879 -0.61727101
0.0575996 0.00270926 -0.62214297
0.100784 0.0035790601 -0.617513
-0.103473 -0.064556703 -0.61713499
0.070072003 0.0062472099 -0.61524802
0.159135 -0.0459227 -0.61753702
0.159733 -0.039684799 -0.620947
0.158999 -0.0203704 -0.62075102
0.158182 -0.019958699 -0.61396497
0.0662793 0.0050587701 -0.61400503
0.144262 0.0128498 -0.621858
0.158547 -0.043803498 -0.61486
0.15752099 -0.0151471 -0.61796498
-0.042441498 -0.078736797 -0.61526901
-0.103798 -0.074405402 -0.61040401
-0.103694 -0.0696261 -0.61364001
0.064053603 -0.0624252 -0.61655402
0.15939701 -0.026351999 -0.62058997
0.14787801 0.0072602802 -0.61510801
0.15804 -0.039454602 -0.61384702
0.111888 -0.0029984401 -0.61686498
0.15444601 -0.0087466501 -0.615915
0.0744045 -0.063062899 -0.61374199
0.15542001 -0.012644 -0.61431998
0.0972718 0.0022607599 -0.61495602
0.068647899 -0.062655903 -0.61365497
0.066447496 -0.061326299 -0.61173499
0.061656199 -0.0596793 -0.61259598
-0.077662699 -0.027272301 -0.61257899
0.106678 -0.00065703999 -0.61572599
0.103434 -0.0029319499 -0.61093599
0.074980602 0.0063052499 -0.614317
-0.103058 -0.077342398 -0.61824203
0.057470001 -0.00057936402 -0.61148798
0.059225101 0.00238641 -0.61617398
0.158755 -0.0222723 -0.61609799
0.062954299 0.00387445 -0.61405802
0.157152 -0.0361766 -0.61022502
0.158121 -0.028629201 -0.60983801
-0.105092 -0.0059452499 -0.61369902
0.15109999 0.00025965 -0.61339998
0.151712 -0.0063343798 -0.61096901
0.157323 -0.033064902 -0.60912597
0.150316 -0.00097653398 -0.61082602
0.062503703 0.0022859499 -0.61012501
0.158218 -0.0247223 -0.60963202
0.14732499 0.00165519 -0.60684901
0.055950198 -0.0064119101 -0.60640699
0.152064 -0.0100262 -0.60936803
-0.105401 -0.002048 -0.60984099
0.148256 -0.0070698601 -0.60482103
-0.00048801501 -0.0283363 -0.59192801
-0.0022859101 -0.039965902 -0.59107202
0.00099197903 -0.037419502 -0.59174299
-0.00742087 -0.041917101 -0.59029901
-0.0072473702 -0.036053199 -0.58985198
-0.0025758699 -0.033940502 -0.590765
-0.0088625802 -0.031635299 -0.58981502
-0.0043216399 -0.02946 -0.59086502
-0.0084859999 -0.025774799 -0.59070998
-0.0112419 -0.042934202 -0.58996397
-0.018337701 -0.042361699 -0.58946401
-0.023299299 -0.0402769 -0.58902502
-0.0129744 -0.0396952 -0.58944499
-0.016593101 -0.033459801 -0.58897299
-0.021648301 -0.036148801 -0.58880299
-0.016421201 -0.028597301 -0.58937198
