-0.00058132 0.02522090 -0.64247400 0.621287 0.768711 0.151937
0.13783200 0.02408750 -0.63831300 0.022164 0.192477 0.981051
0.00182367 -0.09121640 -0.63680100 -0.033754 0.460409 0.887065
-0.02110130 -0.07999630 -0.64402002 0.031063 0.997237 0.067482
0.07538080 -0.06593650 -0.63837999 0.429550 0.891923 0.141281
0.16061001 -0.02408650 -0.64085603 -0.990839 -0.131587 -0.030366
-0.10311800 0.00276866 -0.63839400 -0.874840 -0.442601 0.196876
0.06083640 0.00683396 -0.64209002 0.253315 -0.963617 0.085287
-0.06138150 0.00721538 -0.63894397 -0.006379 0.927487 0.373801
-0.05876300 0.00763225 -0.63954300 -0.309489 0.922763 0.229621
0.10838500 0.00670768 -0.64081597 -0.540383 -0.826205 0.159286
0.07258380 0.01008480 -0.64379001 0.262905 -0.878855 0.398114
-0.07885050 0.01197630 -0.64063501 -0.405516 -0.912075 0.060625
-0.10667100 0.01376060 -0.64042401 0.722788 -0.688302 0.061789
0.08084160 0.01406160 -0.64106202 0.153957 -0.563511 0.811636
0.08612350 0.01744880 -0.64023697 0.104108 -0.626117 0.772748
-0.04698590 0.01708900 -0.63916600 -0.604391 0.765976 0.219072
0.12943900 0.01832680 -0.64264601 -0.929229 0.341040 -0.142215
0.12879699 0.01669250 -0.64158398 -0.940539 0.310799 -0.137077
0.00267863 0.02114760 -0.64031500 0.387966 0.866407 0.314360
-0.00915758 -0.09111770 -0.63708502 0.223797 0.973818 0.039920
0.01334850 -0.08769840 -0.64100099 0.438140 -0.824083 0.359054
-0.10561700 -0.08655680 -0.64232701 0.969337 -0.196435 0.147647
-0.07420340 -0.08515650 -0.64095497 -0.413000 0.910685 0.009120
0.02290970 -0.08417780 -0.63941902 0.094464 -0.800761 0.591488
0.02764600 -0.08415640 -0.64006501 -0.302093 -0.798728 0.520359
-0.02659520 -0.08093000 -0.64117998 -0.138234 0.990118 -0.023601
-0.10132400 -0.08019730 -0.63925099 0.988357 -0.083045 0.127492
0.04576780 -0.07653230 -0.63900602 0.339557 -0.589756 0.732727
0.05154890 -0.07403340 -0.64122403 0.440878 -0.520137 0.731494
0.08154500 -0.07018390 -0.64093399 0.506209 0.693322 0.512891
0.09542390 -0.07064500 -0.64142603 -0.372269 0.791274 0.485078
0.07997330 -0.06755200 -0.64181501 0.597476 0.570395 0.563625
0.10122600 -0.06595340 -0.64001399 -0.633198 0.531886 0.562279
0.07003740 -0.06438200 -0.64070499 0.383961 0.923305 0.008989
0.10880900 -0.05902400 -0.64261901 -0.469483 0.870651 0.146804
0.15839900 -0.06053230 -0.64205098 -0.897171 0.403077 -0.180590
-0.10241100 -0.05242030 -0.63786101 0.967107 0.202718 -0.153653
0.11761400 -0.05349710 -0.63651800 -0.397192 0.910058 -0.118461
-0.10376000 -0.05417640 -0.64091301 0.947399 0.284354 -0.146894
0.13356000 -0.04819170 -0.64168602 0.313283 0.888886 0.334269
-0.10407200 -0.04519730 -0.63925099 0.992798 0.105040 -0.057603
0.13154000 -0.04725430 -0.63945502 -0.077006 0.994388 0.072542
-0.10417600 -0.04230350 -0.64408702 0.999507 0.015252 -0.027453
-0.10514100 -0.02778220 -0.63978100 0.997131 0.061445 0.044197
0.16061001 -0.02452800 -0.63889700 -0.991060 -0.129367 -0.032623
-0.10315400 -0.02103510 -0.64077401 0.977760 -0.203249 0.051714
0.15925799 -0.01524380 -0.63717502 -0.984917 -0.171640 -0.021887
0.15723900 -0.00438919 -0.64005899 -0.975614 -0.218774 -0.017738
0.05754540 0.00566061 -0.63853103 -0.279586 0.959117 0.043881
0.12617201 0.00745494 -0.63913798 0.941386 -0.281729 0.185529
-0.10727800 0.00772932 -0.64173102 0.976803 0.208369 -0.049382
0.09957850 0.01166600 -0.63837600 -0.342928 -0.865778 0.364457
0.09400160 0.01359340 -0.64035499 -0.398837 -0.503023 0.766744
0.07733560 0.01371650 -0.64033699 0.406046 -0.741404 0.534271
-0.09568610 0.01493770 -0.64210898 -0.109983 -0.992115 0.060094
0.03320270 0.01604870 -0.63928598 0.335380 0.906550 0.256295
0.02767620 0.01759380 -0.63990003 -0.009327 0.878112 0.478364
-0.04097400 0.02250850 -0.64329898 0.208762 -0.977761 0.020051
-0.09701130 -0.09193850 -0.64026999 -0.019512 0.999235 0.033890
0.03018500 -0.08740140 -0.64040798 -0.364920 -0.852514 0.374237
-0.10539800 -0.08570110 -0.64096600 0.940182 -0.340389 0.013919
-0.01740220 -0.08434050 -0.64135402 -0.827271 -0.473843 0.301821
-0.02109170 -0.08019030 -0.64066100 0.401115 0.909103 0.112423
0.08415080 -0.07247500 -0.63998699 0.291536 0.920564 0.259941
0.09852750 -0.06994990 -0.63879800 -0.576473 0.786661 0.221007
0.05624890 -0.06938150 -0.64084798 0.630552 -0.748296 0.206053
0.06118790 -0.06355740 -0.63885403 -0.063372 0.989761 0.127897
0.12784900 -0.04819790 -0.64030099 -0.265402 0.949791 0.165708
-0.10508700 -0.03058630 -0.63830101 0.992687 -0.078280 -0.091894
0.15866700 -0.01160670 -0.63868999 -0.984396 -0.175335 -0.014898
0.15820700 -0.00919350 -0.63823402 -0.977805 -0.207413 -0.029630
0.06555460 0.00906993 -0.63591200 -0.460442 0.887323 0.025506
0.04119790 0.01195670 -0.63783503 0.438637 0.825017 0.356293
-0.10274000 0.01540970 -0.64003301 -0.407597 0.901826 0.143440
0.08087830 0.01648680 -0.63976598 0.301444 -0.767167 0.566204
0.01911700 0.01772800 -0.63762897 0.136958 0.832054 0.537521
0.09044450 0.01801770 -0.63963801 -0.236675 -0.631656 0.738238
-0.04368000 0.02145550 -0.64297998 0.461471 -0.886616 -0.030944
0.14407800 0.02032770 -0.63930798 -0.345285 -0.782111 0.518730
0.13309599 0.02373860 -0.63810301 -0.220581 0.951339 0.215168
-0.10128800 -0.09202460 -0.63965797 0.252671 0.946493 0.200771
-0.04353010 -0.08616740 -0.63994199 -0.283873 0.957599 -0.049205
0.03268930 -0.08619780 -0.63866001 0.089049 -0.672974 0.734286
0.01584000 -0.08602710 -0.64085102 0.228564 -0.906978 0.353765
-0.02704190 -0.08068990 -0.63589799 -0.164165 0.986138 -0.024108
-0.06189980 -0.08036810 -0.63708800 -0.196673 0.978536 -0.061536
0.04687130 -0.07360920 -0.63742000 0.438332 -0.608331 0.661664
0.09222180 -0.07310110 -0.63790601 0.325583 -0.929240 0.174669
0.09520020 -0.07216370 -0.63810700 0.268912 -0.951226 0.151179
0.08036900 -0.07079490 -0.63875401 0.595779 0.754654 0.274853
0.05858810 -0.06491450 -0.63751400 0.719456 -0.574577 0.390185
0.06470590 -0.06415980 -0.63843697 0.163709 0.983446 0.077672
0.15492600 -0.06503570 -0.64116502 0.378831 -0.906025 0.188695
0.15683299 -0.06297440 -0.64100701 -0.717865 0.678405 -0.156322
-0.10215700 -0.05718480 -0.64091301 0.839653 0.542985 -0.012248
-0.10384100 -0.05044750 -0.63722301 -0.662823 -0.474884 0.578922
-0.10430000 -0.05091250 -0.63854003 -0.662823 -0.474884 0.578922
0.16106001 -0.02839730 -0.63750100 -0.995707 -0.089733 -0.022703
-0.10328600 -0.01622930 -0.63906097 0.996466 -0.005306 0.083835
0.11441500 0.00397308 -0.64137799 -0.248425 -0.968001 0.035489
0.15344299 0.00464073 -0.63488698 -0.885022 -0.434518 -0.167122
-0.07490130 0.01048960 -0.63663399 0.447290 0.878554 0.167552
0.09784110 0.01342420 -0.63753599 -0.537868 -0.649151 0.537868
0.09386880 0.01772240 -0.63832200 -0.425644 -0.744467 0.514389
0.14767200 0.01707410 -0.64183700 -0.438536 -0.801573 0.406409
0.08601600 0.01880660 -0.63879800 0.218017 -0.827856 0.516839
0.00776408 0.02077920 -0.64002901 0.004068 0.833916 0.551876
0.13497899 0.02430330 -0.63811100 -0.208005 0.943599 0.257596
-0.10438100 -0.09040540 -0.64315802 0.709306 0.681731 -0.179242
-0.08945400 -0.09110630 -0.63663799 -0.265398 0.960305 0.085902
0.00915932 -0.08961130 -0.64116198 0.452281 -0.817280 0.357064
0.00949549 -0.08839110 -0.63752502 0.455343 -0.827180 0.329296
-0.10596400 -0.08673660 -0.63687003 0.918515 -0.394766 -0.022149
0.01190110 -0.08662430 -0.63820899 0.473367 -0.674087 0.567036
0.03026910 -0.08505070 -0.63810003 -0.336427 -0.536030 0.774266
-0.10244000 -0.08311440 -0.63728797 0.790824 -0.612029 -0.004126
-0.06544250 -0.08157240 -0.63890100 -0.333512 0.942644 0.013844
0.02861720 -0.08260480 -0.63815498 -0.208174 -0.599850 0.772557
0.03877710 -0.08016160 -0.63657397 0.430375 -0.446615 0.784419
0.04364180 -0.07691430 -0.63874102 0.409215 -0.527542 0.744475
0.05459510 -0.06986580 -0.63937902 0.488465 -0.845361 0.216255
0.05575040 -0.06799000 -0.63564700 0.686436 -0.610349 0.395321
0.07668180 -0.06771850 -0.63665199 0.601802 0.790141 0.116240
0.15311199 -0.06588110 -0.64172000 0.182842 -0.956920 0.225550
0.13783400 -0.05420490 -0.63556898 -0.752902 -0.649765 0.104611
0.16182300 -0.04344730 -0.64275098 -0.996348 0.066569 -0.053473
0.12444300 0.00345101 -0.63913399 0.643118 -0.728028 0.237435
0.12565599 0.00599831 -0.63884598 0.931030 -0.304726 0.200810
-0.06461440 0.00737225 -0.63787502 0.178802 0.972634 0.148368
-0.10795300 0.00971902 -0.63768297 0.977176 0.200790 0.069364
-0.05622920 0.00835332 -0.63600397 -0.403736 0.893466 0.196766
0.15199600 0.00944717 -0.63990498 -0.814289 -0.578832 0.043447
0.06926350 0.01079020 -0.63735598 -0.500748 0.861851 0.080402
0.06998210 0.01096380 -0.63877797 0.533226 -0.828965 0.168780
-0.09197630 0.01540590 -0.63478798 -0.167087 -0.984994 0.043232
-0.05048730 0.01533990 -0.63783598 -0.427206 0.865054 0.263013
0.02715260 0.01569800 -0.63643801 0.040352 0.836263 0.546841
0.00445799 0.01807850 -0.63668501 0.090077 0.839289 0.536172
0.09096770 0.01964610 -0.63701302 -0.071453 -0.997142 0.024529
-0.04448840 0.01923580 -0.63545102 -0.651403 0.737235 0.179327
-0.00201215 0.02484070 -0.63801497 0.483599 0.828805 0.281451
-0.10100400 -0.09281460 -0.63588703 0.146112 0.971963 0.184228
-0.10564600 -0.09096470 -0.63691097 0.708814 0.690755 0.142967
-0.08201780 -0.08892320 -0.63875002 -0.366639 0.930106 0.021870
-0.04749130 -0.08738250 -0.64266098 0.018810 0.992522 -0.120607
0.01923820 -0.08287030 -0.63759500 -0.015361 -0.730365 0.682884
-0.10162300 -0.08185820 -0.63769400 0.944975 -0.324394 0.042312
-0.10180500 -0.08098610 -0.63276201 0.911587 -0.411057 0.006484
0.04054370 -0.07970230 -0.63791502 0.520309 -0.638178 0.567457
-0.10195400 -0.07004730 -0.63933802 0.996024 0.040276 0.079464
0.08713910 -0.07357160 -0.63809401 0.058965 0.998260 0.001034
0.04997560 -0.07194960 -0.63798201 0.419449 -0.765454 0.487998
0.07213330 -0.06527940 -0.63743001 0.382285 0.921509 0.068409
0.15344600 -0.06443780 -0.63696998 0.065516 -0.951902 0.299316
0.15512700 -0.06287820 -0.63588703 0.515204 -0.827079 0.224733
-0.10252300 -0.05730110 -0.63811803 0.991406 0.117239 -0.058050
0.11633100 -0.05427430 -0.63548702 -0.471745 0.869462 -0.146604
0.12975900 -0.04744490 -0.64028800 0.010980 0.960120 0.279374
0.15513200 0.00242544 -0.63979298 -0.949740 -0.307156 -0.060403
-0.10451800 0.00555571 -0.63748801 0.771226 0.634373 -0.052746
-0.10766400 0.00873754 -0.63473397 0.830852 0.510707 0.221052
0.12613600 0.01039310 -0.63678902 -0.974585 0.215897 -0.059768
-0.10816300 0.01168710 -0.63650298 0.992275 -0.087721 0.087721
-0.08997160 0.01465700 -0.64140099 -0.165210 -0.952308 0.256546
0.07928950 0.01752140 -0.63795400 0.270183 -0.888171 0.371689
0.01467910 0.01916900 -0.63886899 0.136958 0.832054 0.537521
0.13008800 0.02062820 -0.64156801 -0.881603 0.470097 -0.042241
-0.00543201 0.02569280 -0.63563597 0.429295 0.847742 0.311510
-0.01474280 0.02761200 -0.63853002 -0.108294 0.967003 0.230603
-0.08397210 -0.08979920 -0.63423699 -0.318402 0.947654 -0.023912
0.00397847 -0.09071650 -0.63697797 -0.033754 0.460409 0.887065
0.02570100 -0.08192850 -0.63674003 0.111149 -0.721727 0.683195
0.03030090 -0.08007750 -0.63629800 0.011886 -0.447710 0.894100
-0.06015840 -0.07979700 -0.63480800 -0.069910 0.991340 -0.111168
-0.05872970 -0.07968620 -0.63892698 0.079888 0.989921 -0.116938
-0.05731760 -0.07998350 -0.63682598 0.133516 0.990711 -0.025806
0.09077360 -0.07238600 -0.63579899 0.152588 -0.639055 0.753874
0.05065530 -0.07082380 -0.63716203 0.399593 -0.784626 0.474011
0.08205770 -0.07221890 -0.63692200 0.353821 0.934450 -0.040177
0.07840190 -0.06982780 -0.63485402 -0.582647 -0.812385 0.023527
0.09905590 -0.07001810 -0.63607001 0.491295 -0.837191 0.240291
0.14868100 -0.06450390 -0.63932902 -0.282669 -0.937123 0.204691
-0.10232400 -0.06507630 -0.63716102 0.996024 0.040276 0.079464
0.11328300 -0.05659540 -0.63776499 -0.612911 0.790005 0.015219
0.12678400 -0.04913060 -0.63585502 -0.317703 0.948124 -0.011213
0.13395301 -0.04940560 -0.63373899 -0.484320 -0.857558 0.173289
-0.10435600 -0.04661180 -0.63546199 -0.964493 -0.127824 0.231117
-0.10455600 -0.04269350 -0.63457900 -0.971546 -0.112442 0.208459
0.16145100 -0.04083150 -0.63573301 -0.998252 0.019944 -0.055633
0.11953600 0.00258170 -0.63763100 0.056207 -0.997945 0.030755
0.11175300 0.00516248 -0.63634300 -0.688018 -0.717610 0.108011
0.10515800 0.00931319 -0.63898301 -0.456452 -0.860179 0.227473
0.05032770 0.00649195 -0.63770300 0.260629 0.927156 0.269174
0.10233300 0.01110100 -0.63635701 -0.479160 -0.863073 0.159720
0.03220650 0.01484690 -0.63595003 0.150819 0.856594 0.493457
0.00670714 0.01885620 -0.63744301 0.090077 0.839289 0.536172
0.13118000 0.02190700 -0.63540000 -0.594787 0.785481 0.171020
-0.10427000 -0.09187460 -0.63554698 0.610428 0.771788 0.178105
-0.01398230 -0.08944420 -0.63788199 0.423997 0.905147 0.030570
-0.10626100 -0.08789730 -0.63373798 0.987131 -0.146372 0.064404
-0.04486980 -0.08625850 -0.63616002 -0.117908 0.992848 -0.018733
-0.07671190 -0.08643530 -0.63782901 -0.474324 0.880120 -0.020155
-0.05352690 -0.08429050 -0.63790601 -0.785791 -0.578922 0.217675
0.01292570 -0.08322320 -0.63642198 0.791200 -0.495904 0.357886
0.03271360 -0.08227890 -0.63596201 -0.220847 -0.416497 0.881905
0.03520810 -0.08279430 -0.63661498 0.309778 -0.589059 0.746356
0.02203000 -0.08029440 -0.63496298 0.004111 -0.601528 0.798841
0.01388130 -0.08062560 -0.63564903 0.343294 -0.530251 0.775231
-0.05818950 -0.07968910 -0.63393199 -0.022419 -0.978191 0.206494
0.04357640 -0.07506280 -0.63599801 0.435008 -0.641678 0.631678
0.08522090 -0.07270030 -0.63466901 -0.164966 -0.970614 0.175197
0.08880630 -0.07325500 -0.63651198 0.097454 -0.912770 0.396678
0.08294690 -0.07239720 -0.63469702 -0.304770 -0.943847 0.127547
0.09587170 -0.07125180 -0.63547897 0.238422 -0.851939 0.466213
0.05282440 -0.06968810 -0.63487101 0.365881 -0.840113 0.400427
0.10209200 -0.06769550 -0.63647902 -0.595365 0.802692 0.035021
0.10375400 -0.06624130 -0.63457298 -0.779978 0.624266 0.043883
0.15198299 -0.06450870 -0.63594598 0.127445 -0.972875 0.193061
0.10442300 -0.06293880 -0.63846701 -0.770016 0.490010 0.408613
0.15751500 -0.05758370 -0.63235700 -0.174476 0.587149 0.790452
-0.10506100 -0.03561330 -0.63530302 0.978664 0.157131 -0.132386
0.11712900 0.00328180 -0.63468802 -0.200661 -0.967056 0.156645
0.05488310 0.00494231 -0.63681698 0.127547 0.943847 0.304770
-0.06026880 0.00620244 -0.63528502 -0.218932 0.920087 0.324821
0.12460200 0.00504606 -0.63531703 -0.840533 0.532001 -0.102363
0.10748500 0.00830837 -0.63359898 -0.521226 -0.852031 -0.048648
0.09993200 0.01297890 -0.63540900 -0.670794 -0.711259 0.210109
0.07310530 0.01351320 -0.63613200 -0.628126 0.754059 0.191970
-0.10730000 0.01456440 -0.63603199 0.799333 -0.559071 0.220240
-0.09759730 0.01540870 -0.63779002 -0.067937 -0.994551 0.079074
0.00983431 0.01772920 -0.63609701 -0.012437 0.786305 0.617713
0.08069970 0.01810470 -0.63516098 -0.017116 -0.999768 0.013089
0.09351620 0.01906710 -0.63526398 0.191380 0.976657 0.097542
0.08608840 0.01948360 -0.63663900 0.123898 -0.992280 -0.005482
-0.00984033 0.02767800 -0.63858497 0.043544 0.982691 0.180062
-0.01632630 -0.08782260 -0.63694501 0.619387 0.779699 0.091815
-0.07228870 -0.08409280 -0.63510001 0.467664 -0.881525 0.064838
-0.02116210 -0.08100780 -0.63529801 0.564955 0.789070 0.241234
0.04077780 -0.07493430 -0.63433200 0.208237 -0.238179 0.948635
0.05975980 -0.06326840 -0.63650501 0.027112 -0.979580 0.199217
0.15884300 -0.05506870 -0.63393003 -0.911044 0.381136 -0.157272
0.12051200 -0.05241520 -0.63578302 -0.397192 0.910058 -0.118461
-0.10267600 -0.04932760 -0.63552302 -0.638842 -0.428675 0.638842
-0.10307300 -0.01057030 -0.64093500 0.997559 -0.013694 0.068470
0.12146200 0.00265925 -0.63545698 0.205892 -0.947649 0.244071
0.04944960 0.00554559 -0.63366997 0.222216 0.907745 0.355836
0.06265170 0.00723698 -0.63348800 -0.430879 0.889139 0.154194
0.12564200 0.00856159 -0.63581598 -0.954763 0.290135 -0.065185
0.15042600 0.01177470 -0.63838702 0.590842 -0.235402 0.771681
-0.08738080 0.01474430 -0.63205701 0.216673 0.975627 0.034716
-0.04756340 0.01546390 -0.63471198 -0.546932 0.810440 0.209887
0.01559080 0.01609960 -0.63494098 0.091531 0.794720 0.600035
0.12972599 0.01970860 -0.63540602 -0.754175 0.648325 0.104379
0.00074882 0.01961220 -0.63119698 0.732531 0.655745 0.182749
-0.02860370 0.02403310 -0.63952601 -0.245235 0.940762 0.234151
-0.01357630 0.02643630 -0.63435102 0.142343 0.962450 0.231145
-0.01104970 0.02524720 -0.63095802 0.121641 0.945056 0.303434
-0.00390238 -0.09179090 -0.63780499 -0.065670 -0.920727 0.384641
-0.10555100 -0.09180260 -0.63389403 0.766894 0.630426 0.120152
-0.10616100 -0.08976130 -0.63689399 0.970516 0.240535 0.015557
-0.10589800 -0.08706430 -0.63129002 0.916871 -0.346500 0.198204
-0.05167590 -0.08606220 -0.63594502 0.520372 0.851391 0.065923
0.01527970 -0.08117120 -0.63630402 0.181433 -0.514311 0.838192
0.01488980 -0.07581930 -0.63284600 0.465630 -0.699279 0.542400
0.02680280 -0.07932210 -0.63482797 0.131622 -0.581206 0.803041
0.03315630 -0.07683990 -0.63498300 0.030873 -0.455036 0.889938
0.03666550 -0.07786880 -0.63460398 0.117486 -0.520711 0.845611
-0.10173600 -0.07635710 -0.63672900 0.993511 0.036632 0.107677
0.03876310 -0.07244690 -0.63410097 0.169504 -0.269850 0.947866
0.04699840 -0.07119510 -0.63477403 0.354786 -0.632729 0.688317
0.09278960 -0.06900240 -0.63456500 0.049573 -0.616123 0.786088
0.09726480 -0.07011940 -0.63447899 0.049773 -0.760819 0.647052
0.06059300 -0.06283170 -0.63216400 -0.119254 -0.984144 0.131299
0.10610400 -0.06200300 -0.63471401 -0.882832 0.437780 0.170167
0.14198899 -0.05888880 -0.63470399 -0.663897 -0.746351 0.046913
0.13045800 -0.04760040 -0.63426602 -0.071157 0.997261 0.020179
-0.10337700 -0.04489120 -0.63389301 0.962807 0.256324 -0.085441
0.16111600 -0.04516000 -0.63570398 -0.981285 0.075854 -0.176992
0.11255400 0.00478078 -0.63378602 0.282211 0.933684 0.220434
0.07001370 0.01046920 -0.63270700 -0.419769 0.887804 0.188677
0.14717101 0.01461700 -0.63497603 0.755417 0.593201 0.278312
0.07442070 0.01476050 -0.63618898 0.396713 -0.894435 0.206408
-0.10085900 0.01576550 -0.63607299 -0.083332 -0.981865 0.170287
0.07717120 0.01653110 -0.63555598 -0.460557 0.838927 0.289980
0.09649860 0.01721620 -0.63617802 -0.701615 -0.676613 0.223454
0.12880599 0.01814470 -0.63864398 -0.918041 0.393065 -0.051965
-0.09765220 -0.09197460 -0.63554901 -0.240467 0.970326 -0.025376
-0.00073979 -0.09156210 -0.63672000 -0.155584 0.945677 0.285462
-0.05670730 -0.08070770 -0.63289201 -0.205100 -0.949438 0.237699
-0.06310170 -0.08062770 -0.63553602 0.169154 -0.976081 0.136576
0.01598340 -0.07734020 -0.63383901 0.332504 -0.595263 0.731508
0.02297150 -0.07722510 -0.63338000 0.056389 -0.350134 0.935001
0.03455380 -0.07306530 -0.63296402 0.224837 -0.418405 0.879992
0.04331060 -0.07323660 -0.63450098 0.272629 -0.393128 0.878137
0.04543700 -0.07030360 -0.63384902 -0.103755 -0.591840 0.799350
0.04369230 -0.06873660 -0.63374901 -0.105741 -0.455389 0.883991
0.09985530 -0.06905040 -0.63400102 0.277518 -0.854018 0.440042
0.10309400 -0.06663100 -0.63217700 0.406768 -0.872511 0.270675
0.16040000 -0.05132150 -0.63813901 -0.974724 0.215928 -0.057337
0.13232000 -0.04785400 -0.63510901 -0.523205 -0.852076 0.014949
-0.10473300 -0.03921950 -0.63465399 0.990076 -0.003319 -0.140491
0.16135301 -0.03449530 -0.63548100 -0.998196 -0.039166 -0.045517
0.16028400 -0.02351390 -0.63307202 -0.990686 -0.132167 -0.032759
0.15838701 -0.01037730 -0.63673502 -0.984217 -0.176123 -0.017267
0.05329990 0.00401510 -0.63259602 0.161559 0.934831 0.316213
-0.06197930 0.00504923 -0.63241899 -0.132199 0.894120 0.427870
-0.07414430 0.00950187 -0.63345999 0.475193 0.848667 0.232283
0.03848060 0.01212630 -0.63486397 0.215996 0.966163 0.140980
-0.05234390 0.01334300 -0.63533801 -0.417070 0.835713 0.357263
0.03368940 0.01303740 -0.63379502 0.222705 0.745984 0.627623
0.02453460 0.01380210 -0.63387102 0.358395 0.536781 0.763819
0.09849690 0.01546860 -0.63292998 -0.723555 -0.690096 -0.015335
0.08656540 0.01899290 -0.63420397 -0.161260 0.881847 0.443103
0.00022395 0.02320010 -0.63803601 0.676921 0.698909 0.230876
-0.02427850 0.02304360 -0.63043898 -0.316173 0.859066 0.402543
-0.04983610 -0.08681660 -0.63440800 0.106381 0.993265 0.045912
-0.04754750 -0.08642020 -0.62992799 -0.200771 -0.946493 0.252671
-0.02035890 -0.08336490 -0.63220298 0.740739 0.645655 0.185568
-0.10247200 -0.08371860 -0.62861300 0.896855 -0.441054 -0.033515
0.01130920 -0.08314880 -0.63111800 0.857034 -0.469793 0.211632
-0.03142550 -0.08162830 -0.63529700 0.234161 -0.946228 0.223206
-0.06393630 -0.08013590 -0.63159001 0.270955 -0.933603 0.234454
0.02998860 -0.07676350 -0.63382202 0.227769 -0.509042 0.830059
0.08665400 -0.07184130 -0.63418299 0.145955 -0.633477 0.759871
0.04879470 -0.06904730 -0.63234502 0.102883 -0.827412 0.552091
0.08027420 -0.07034550 -0.63232499 -0.360762 -0.815290 0.452939
0.04006440 -0.06838240 -0.63300198 0.222329 -0.428244 0.875886
0.04633550 -0.06813430 -0.63138998 -0.282224 -0.620255 0.731869
0.04178260 -0.06655810 -0.63245797 -0.009288 -0.460413 0.887656
0.09611710 -0.06540670 -0.63251001 -0.152761 -0.691204 0.706329
0.05551680 -0.06457050 -0.63302201 0.518945 -0.663377 0.539099
0.05792890 -0.06282990 -0.63365698 0.250091 -0.879063 0.405836
-0.10290600 -0.05928480 -0.63247502 0.995910 0.033741 0.083809
0.11806800 -0.05278730 -0.63139999 0.355953 -0.917537 0.177268
-0.10292100 -0.04600160 -0.63348502 0.957314 0.267006 -0.110710
-0.10332200 -0.03929800 -0.63251501 -0.898179 -0.041744 0.437643
-0.10368800 -0.02540050 -0.63486898 -0.842992 0.364410 0.395690
-0.10346200 -0.02241080 -0.63713902 0.996839 -0.015992 0.077828
-0.10405300 0.00552573 -0.63212901 0.845726 0.531877 -0.043050
-0.10607100 0.00659672 -0.64025301 0.778717 0.622685 -0.076571
0.04421060 0.00900102 -0.63469100 0.332487 0.824127 0.458549
0.10246100 0.01109630 -0.63308001 -0.695890 -0.718114 -0.006945
0.04049180 0.00838987 -0.63090003 0.399830 0.758861 0.514067
0.12738100 0.01470600 -0.63719398 -0.945017 0.284185 -0.161809
-0.10770100 0.01534540 -0.63397998 0.498727 -0.771646 0.394758
-0.08120560 0.01287740 -0.63462597 0.348522 0.935917 0.050908
0.09158470 0.01884890 -0.63388699 0.284242 0.805614 0.519801
0.14085600 0.02261380 -0.63799399 -0.438637 -0.825017 0.356293
-0.02845020 0.02305600 -0.63542002 -0.981518 0.174626 0.078281
-0.01731980 -0.08720950 -0.63341701 0.752003 0.652709 0.091993
-0.08054310 -0.08843150 -0.63485599 -0.413700 0.910140 0.022327
0.01006140 -0.08597770 -0.63277102 0.771872 -0.583227 0.253099
-0.05322020 -0.08512580 -0.63199002 0.544116 0.827233 -0.140084
0.03087130 -0.07367410 -0.63258803 0.088596 -0.321324 0.942816
0.10202400 -0.06657150 -0.63060302 0.248011 -0.797066 0.550615
0.07448720 -0.06659430 -0.63329101 0.544916 0.838437 0.009512
0.08647070 -0.06736930 -0.63242602 0.340626 -0.544033 0.766813
0.09088980 -0.06550740 -0.63093501 0.176801 -0.854291 0.488803
0.06522320 -0.06428700 -0.63397199 0.266168 0.963797 -0.015800
0.13298400 -0.04786580 -0.63129300 -0.572215 -0.818055 0.057928
-0.10350900 -0.00934418 -0.63462400 0.997624 0.017947 0.066508
-0.10344800 -0.00073637 -0.63299900 0.992406 0.066917 0.103210
-0.05746800 0.00680230 -0.63476902 -0.385504 0.888595 0.248568
-0.06825420 0.00657214 -0.63273603 0.391255 0.849538 0.353844
0.03072280 0.01272510 -0.63278002 0.149294 0.755517 0.637892
0.07260560 0.01174090 -0.63146102 -0.536192 0.771279 0.342969
0.01440120 0.01203260 -0.63119501 -0.609745 0.626542 0.485444
-0.04649680 0.01640100 -0.63499200 -0.600583 0.758216 0.253790
-0.10539100 0.01691510 -0.63140398 0.270436 -0.952522 0.139881
0.08121340 0.01702990 -0.63295102 -0.113427 0.862905 0.492473
0.08382620 0.01665720 -0.63226098 -0.109696 0.577731 0.808823
0.09241910 0.01746960 -0.63201302 -0.077039 0.710796 0.699167
0.09650480 0.01662960 -0.63169098 0.304555 0.864692 0.399442
0.08895770 0.01777040 -0.63281697 -0.023855 0.745103 0.666523
-0.04124870 0.02103350 -0.63583499 -0.422414 0.858653 0.290314
-0.03393480 0.02190340 -0.63576901 -0.219218 0.936914 0.272278
0.13865200 0.01908790 -0.62657499 0.346727 0.905587 0.244318
0.13794599 0.02210370 -0.63296402 0.051398 0.512590 0.857094
-0.00524197 0.02423760 -0.63193899 0.447163 0.846361 0.289341
-0.01230650 -0.09082550 -0.63130897 0.207448 0.976583 0.057018
-0.00369975 -0.09042620 -0.62782598 -0.160738 0.980378 -0.114112
0.00450568 -0.08907430 -0.63068700 0.452022 -0.869956 0.197111
-0.05079230 -0.08661560 -0.63112301 -0.430910 -0.883730 0.182589
-0.10346200 -0.08480800 -0.63050097 -0.796110 0.600322 0.076300
-0.04063300 -0.08426750 -0.63077801 0.298130 -0.935989 0.187198
0.01332810 -0.07759730 -0.63296700 0.762362 -0.444301 0.470533
0.01886130 -0.07397050 -0.63229501 0.132336 -0.498806 0.856551
0.02236060 -0.07237690 -0.63199902 0.117924 -0.337508 0.933907
0.02622440 -0.07061790 -0.63188499 0.331310 -0.751508 0.570500
0.03778040 -0.06800580 -0.63165402 0.269716 -0.425145 0.864005
0.09027350 -0.06786760 -0.63395703 0.170920 -0.591413 0.788046
0.05314230 -0.06804300 -0.63329899 0.422619 -0.697737 0.578409
0.09461080 -0.06428050 -0.63108999 0.089294 -0.956353 0.278235
0.06802430 -0.06486060 -0.63021803 0.187264 0.982277 0.008042
0.14495800 -0.06149770 -0.63426501 -0.634031 -0.769792 0.073657
0.12687600 -0.04842150 -0.63074201 0.292619 -0.945281 0.144287
0.15931500 -0.01784510 -0.62901300 -0.982204 -0.158654 -0.100521
0.15719999 -0.00468044 -0.63804501 -0.975341 -0.219778 -0.020196
-0.05932670 0.00463847 -0.63162702 -0.319185 0.845451 0.428175
0.05608550 0.00438289 -0.63306302 -0.093824 0.960092 0.263479
0.11205900 0.00333126 -0.62864500 0.545903 0.791324 0.275311
0.06019990 0.00657243 -0.63652498 -0.411752 0.901327 0.134421
0.10832000 0.00701323 -0.63046098 0.326925 0.900893 0.285505
-0.07743150 0.01095490 -0.63227600 0.405895 0.887065 0.219921
0.02283180 0.01162860 -0.63154000 0.175610 0.652047 0.737561
0.00705305 0.01312840 -0.63169998 0.415406 0.793635 0.444501
0.07636860 0.01491190 -0.63200903 -0.473309 0.800615 0.367416
0.09115280 0.01423770 -0.63116002 -0.225820 0.599590 0.767787
-0.04047140 0.01956710 -0.63059402 -0.214142 0.915492 0.340615
-0.03337780 0.02066030 -0.63122898 -0.236524 0.909821 0.341001
-0.02831620 0.02183370 -0.63101202 -0.274946 0.912121 0.304040
0.13342600 0.02237180 -0.63285202 -0.313500 0.905177 0.287007
0.13630000 0.02265630 -0.63319498 0.050784 0.936240 0.347672
-0.10204000 -0.09379030 -0.63043499 0.080556 0.972869 0.216882
-0.00534039 -0.09110870 -0.63104802 0.003483 -0.978655 0.205483
-0.01455340 -0.08959600 -0.63230699 0.509338 0.845944 0.157969
-0.05322550 -0.08364810 -0.62949198 -0.551288 -0.752939 0.359394
-0.02341240 -0.08030080 -0.63490897 -0.052848 0.732735 0.678459
0.01296560 -0.07551000 -0.62876201 0.848704 -0.482597 0.216336
0.08221270 -0.06837830 -0.62989402 0.410463 -0.649761 0.639790
0.08388920 -0.07127520 -0.63269901 0.126746 -0.729163 0.672500
0.02953600 -0.06896320 -0.63173598 0.094612 -0.612798 0.784556
0.03434330 -0.06997630 -0.63207799 0.118497 -0.402889 0.907546
0.07221350 -0.06558310 -0.63278300 0.228127 0.973420 0.020304
0.04230080 -0.06467420 -0.63105601 -0.200952 -0.587515 0.783865
0.06381170 -0.06398100 -0.63121700 0.265128 0.963990 -0.020770
0.10618200 -0.06195260 -0.63159198 -0.023341 0.999612 -0.015223
0.05525420 -0.06185350 -0.63011599 0.395867 -0.641007 0.657570
0.05747170 -0.06137840 -0.62995601 0.126892 -0.741944 0.658345
0.14626400 -0.06206710 -0.63204998 0.336767 0.940625 0.042580
0.14157900 -0.05770300 -0.62674099 -0.797066 -0.442815 0.410610
0.11228800 -0.05704530 -0.62903601 -0.559053 0.817077 -0.140875
0.11087000 -0.05854110 -0.63373899 -0.662914 0.747722 -0.038164
0.16016100 -0.04903690 -0.63202798 -0.983271 0.159677 -0.087642
-0.10358300 -0.03642300 -0.63174498 0.992514 0.118924 -0.027786
0.16103600 -0.03469730 -0.63032597 -0.996387 -0.055536 -0.064248
0.12524900 0.00589625 -0.63095802 -0.932812 0.345934 0.100954
0.12604900 0.00890869 -0.63192201 -0.956066 0.286438 0.062380
-0.10830900 0.01526520 -0.63091499 0.818485 -0.574448 0.009597
0.08738970 0.01523570 -0.63200498 -0.020548 0.538357 0.842467
0.07868660 0.01462690 -0.63083202 -0.046989 0.716223 0.696288
-0.09354830 0.01581080 -0.63171899 0.105706 0.993635 0.038944
0.09340800 0.01526120 -0.63016701 -0.227324 0.666296 0.710193
-0.00149045 0.02232030 -0.63195503 0.559226 0.777847 0.286742
0.13121399 0.02031920 -0.63068801 -0.618601 0.724647 0.303677
0.00816524 -0.08749240 -0.63209498 0.538861 -0.559132 0.630079
-0.10234300 -0.07374990 -0.63200200 0.993813 0.057141 0.095236
0.02185470 -0.07159300 -0.63069201 0.373578 -0.865532 0.333607
0.02997550 -0.06801460 -0.63064897 0.081308 -0.837326 0.540624
0.03589250 -0.06613290 -0.63061303 0.249425 -0.515891 0.819539
0.08636780 -0.06607520 -0.63068998 0.278014 -0.882130 0.380203
0.09860510 -0.06779420 -0.63245201 0.154070 -0.809239 0.566916
0.09067430 -0.06476880 -0.62954998 0.232792 -0.900422 0.367489
0.14986999 -0.06337050 -0.63171798 -0.082554 -0.918922 0.385704
0.12077700 -0.05129290 -0.62914401 0.319587 -0.909146 0.267053
0.13138500 -0.04709770 -0.63141602 -0.001164 -0.976541 0.215328
-0.10374500 -0.02837650 -0.63225001 0.996288 -0.070775 -0.048998
-0.10396700 -0.02194840 -0.62835598 0.997835 -0.003128 0.065688
0.12352000 0.00331282 -0.63533598 -0.509617 0.856891 -0.077643
0.05236070 0.00296226 -0.62984997 0.128315 0.869368 0.477215
-0.10368400 0.00452566 -0.63268900 0.987018 0.160573 0.003369
-0.07010960 0.00602783 -0.62936997 0.334360 0.847563 0.412118
-0.10487100 0.00673595 -0.62915802 0.806851 0.586930 0.067119
-0.05642760 0.00699780 -0.63181198 -0.668950 0.723807 0.169142
0.12702399 0.01228450 -0.63222402 -0.946587 0.313793 0.074217
-0.08548030 0.01368320 -0.62775397 0.229022 0.954928 0.188843
0.00529921 0.01296650 -0.63063800 0.415406 0.793635 0.444501
0.08440140 0.01385000 -0.63107502 0.012433 0.603705 0.797111
0.08939690 0.01214210 -0.62921202 -0.135736 0.771162 0.622001
-0.08972000 0.01509370 -0.62938100 0.168894 0.968238 0.184365
0.14090300 0.01791390 -0.62756699 -0.199343 -0.721653 0.662932
-0.09380570 -0.09213330 -0.62924999 -0.256154 0.961541 0.099115
-0.10664200 -0.09070080 -0.62976903 0.988194 0.080884 0.130118
-0.08975470 -0.09071030 -0.63006198 -0.185190 0.826579 0.531480
-0.07863600 -0.08691570 -0.62969202 0.505392 -0.851110 0.142096
-0.07189250 -0.08313450 -0.63005298 0.544642 -0.819226 0.179536
-0.03128610 -0.08105890 -0.62853301 0.035183 -0.781071 0.623450
-0.02486590 -0.08040710 -0.62773103 -0.193202 -0.958014 0.211856
-0.10278400 -0.06871290 -0.63045698 0.994414 0.098227 -0.038629
0.04045900 -0.06304730 -0.63014400 0.070952 -0.690696 0.719656
0.15564500 -0.06019860 -0.63082999 -0.576449 0.657119 0.485696
0.13254599 -0.04613830 -0.62596202 -0.542144 -0.733295 0.410316
0.16096000 -0.04047230 -0.62945098 -0.991534 0.055781 -0.117254
-0.10344300 -0.04524770 -0.62881899 0.986903 0.110448 0.117573
0.15886600 -0.01649730 -0.62560099 -0.978225 -0.187320 -0.089375
0.11877100 0.00061587 -0.62848198 -0.045699 0.851671 0.522081
0.12435400 0.00154527 -0.62662399 -0.834474 0.435309 0.337875
-0.05801320 0.00304356 -0.62741601 -0.708740 0.641241 0.294103
-0.06684480 0.00417063 -0.62852800 0.401880 0.821232 0.405056
0.03261140 0.01036000 -0.63070399 0.114087 0.718599 0.686003
0.10338000 0.00968203 -0.63011497 0.573527 0.742499 0.346066
0.10165600 0.01146960 -0.63088900 0.723067 0.668034 0.175798
0.07560870 0.01199900 -0.62901402 -0.387742 0.741128 0.548075
0.09942810 0.01386160 -0.62968600 0.623866 0.686417 0.373661
0.00303501 0.01801440 -0.63458300 0.537960 -0.625652 0.564942
-0.02979560 0.02031470 -0.62896901 -0.254297 0.901062 0.351311
-0.10038800 -0.09364370 -0.63108498 -0.234203 0.961670 0.142615
-0.09776390 -0.09286880 -0.62990201 -0.214000 0.975695 0.047153
-0.10669700 -0.08894730 -0.62901300 0.968227 -0.240499 0.068536
-0.05154470 -0.08492070 -0.62849599 -0.415550 -0.848219 0.328393
-0.06403160 -0.07926690 -0.62875599 0.271011 -0.884902 0.378816
0.01676450 -0.07377930 -0.63135701 0.465630 -0.699279 0.542400
0.07656530 -0.06729110 -0.62956601 -0.203499 -0.971993 0.117549
0.10052500 -0.06617030 -0.62958801 -0.122014 -0.807057 0.577729
0.03469900 -0.06532190 -0.62925798 0.197271 -0.507482 0.838776
0.06221720 -0.06330750 -0.62737900 0.402174 0.914515 -0.043801
0.04314250 -0.06251490 -0.62878299 -0.156192 -0.662679 0.732435
0.04682300 -0.06348470 -0.62845802 -0.043603 -0.586525 0.808757
0.16053800 -0.04507520 -0.62904799 -0.990756 0.111618 -0.077097
0.15727000 -0.00769285 -0.62828499 -0.954108 -0.252205 -0.161464
-0.10392600 -0.01173930 -0.62766999 0.998347 -0.007257 0.057019
0.15582100 -0.00320659 -0.62739801 -0.936657 -0.304862 -0.172433
0.12227100 0.00043043 -0.62895399 -0.257470 0.837163 0.482563
0.12359000 0.00070847 -0.62788498 -0.668391 0.638684 0.381230
-0.05935080 0.00076472 -0.62538099 -0.177523 0.787475 0.590227
-0.10402400 0.00362100 -0.62652397 0.963605 0.267198 -0.008463
0.03229240 0.00718234 -0.62728798 0.101733 0.718027 0.688540
0.00684546 0.01147670 -0.62914401 0.415406 0.793635 0.444501
0.08248220 0.01167550 -0.62918103 0.072729 0.817129 0.571848
-0.05134750 0.01228150 -0.62955397 0.153584 -0.562146 0.812652
0.08135140 0.01087440 -0.62844998 0.017968 0.803011 0.595693
0.00442094 0.01235730 -0.62793499 0.415406 0.793635 0.444501
0.12880599 0.01665860 -0.62972200 -0.887415 0.454123 0.079159
-0.10388200 0.01674640 -0.63316000 0.205220 -0.943463 0.260313
-0.04332810 0.01829790 -0.63071901 -0.400639 0.875359 0.270620
0.00108810 0.01705720 -0.62625200 0.728382 0.633168 0.261836
-0.03487570 0.01927150 -0.62908697 -0.192331 0.916067 0.351895
-0.02065120 0.02290730 -0.62731701 -0.232524 0.922965 0.306704
-0.01882820 0.02452280 -0.63024300 -0.197739 0.904979 0.376714
-0.01293560 0.02425470 -0.62756199 0.058503 0.942545 0.328916
-0.00698110 -0.09126480 -0.63176697 -0.053055 -0.968558 0.243065
-0.08633230 -0.09013720 -0.62976801 -0.241851 0.966139 -0.089903
-0.01592060 -0.08959820 -0.62875402 0.463469 0.880450 0.100019
-0.08205650 -0.08853540 -0.62727797 0.385063 -0.892580 0.234579
-0.01984560 -0.08539180 -0.62829500 0.795706 0.563947 0.220944
-0.04916880 -0.08671440 -0.62964499 -0.366946 -0.880368 0.300503
0.00850375 -0.08533730 -0.62661099 0.677770 -0.708648 0.196075
-0.02316290 -0.08111610 -0.62759900 -0.463475 -0.740570 0.486566
-0.05656960 -0.07857610 -0.62976301 -0.283172 -0.861760 0.420931
0.08082390 -0.06712890 -0.62755001 -0.119238 -0.925124 0.360456
0.02869420 -0.06736240 -0.62726301 0.468496 -0.793706 0.387998
0.08927100 -0.06489300 -0.62654901 0.208625 -0.954293 0.214009
0.09799860 -0.06394740 -0.62831098 -0.083597 -0.905861 0.415243
0.10518100 -0.06192060 -0.62796301 0.469418 -0.841874 0.266260
0.14779501 -0.06176570 -0.62615800 -0.273167 -0.954106 0.122727
0.15240800 -0.06303640 -0.63089001 0.425640 -0.849732 0.311104
0.15402000 -0.06200800 -0.63069999 0.421677 -0.854165 0.304287
0.05069150 -0.06320110 -0.62871802 0.208857 -0.295765 0.932149
0.05467920 -0.06023330 -0.62882000 0.242830 -0.400744 0.883424
-0.10394900 -0.03436120 -0.62830800 0.957240 -0.138253 0.254123
0.15546399 -0.00047956 -0.63333201 -0.934272 -0.342791 -0.098132
0.04295010 0.00328866 -0.62628001 0.387498 0.677710 0.624944
0.14907999 0.00940449 -0.62950301 0.528414 0.222087 0.819424
0.06699230 0.00839477 -0.62977898 -0.372286 0.905365 0.204250
0.02017390 0.00976094 -0.62925100 -0.337114 0.881334 0.331067
0.07285870 0.01043300 -0.62856698 -0.358516 0.863209 0.355439
-0.10804900 0.00956660 -0.62698603 0.754371 0.654548 0.049911
0.01426860 0.01046890 -0.62934601 0.079838 0.759185 0.645960
-0.10879000 0.01083880 -0.62913698 -0.809697 0.301466 0.503496
0.01917310 0.00783125 -0.62510997 0.151969 0.881418 0.447222
-0.04805550 0.01104980 -0.62531102 -0.463299 0.848617 0.255350
0.09878250 0.01345840 -0.62802398 0.544127 0.719439 0.431663
0.09562210 0.01554210 -0.62984502 0.055096 0.812307 0.580623
-0.10717000 0.01629030 -0.63088298 0.551135 -0.825971 0.118414
-0.10615100 0.01684970 -0.62892997 0.518412 -0.846594 0.120527
0.13614100 0.01989240 -0.62665200 -0.299227 -0.873377 0.384286
-0.00458721 0.02285020 -0.62859398 0.383310 0.855076 0.349169
-0.10569300 -0.09276040 -0.62920499 0.845517 0.502538 0.180437
-0.10293900 -0.09437570 -0.62436497 0.196755 0.924322 0.326981
0.00520950 -0.08795150 -0.62733102 0.464504 -0.847758 0.256014
-0.07099020 -0.08185790 -0.62733197 -0.633198 -0.562279 0.531886
0.01192190 -0.07917940 -0.62846100 0.931125 -0.306641 0.197427
0.01403350 -0.07475700 -0.63026798 0.661616 -0.641817 0.387730
0.10291600 -0.06298270 -0.62695098 0.199180 -0.751942 0.628419
0.04081220 -0.06206590 -0.62816602 0.085931 -0.741341 0.665605
0.04903340 -0.05900060 -0.62764400 0.186818 -0.569568 0.800432
0.05169750 -0.05814300 -0.62760001 0.123597 -0.722223 0.680528
0.11448600 -0.05489800 -0.62717301 -0.712354 0.701070 0.032444
0.13911900 -0.05538700 -0.62902701 -0.741660 -0.658092 0.129828
-0.10375800 -0.01696220 -0.63129300 0.998340 -0.007272 0.057137
0.04455110 0.00072581 -0.62449902 0.156016 0.713431 0.683137
0.04736440 0.00424062 -0.62987000 0.222030 0.877691 0.424689
0.05457680 0.00266880 -0.62847501 -0.095132 0.908584 0.406726
0.10650500 0.00647443 -0.62667698 0.459141 0.797455 0.391478
0.02894780 0.00875861 -0.62852597 0.142822 0.732150 0.666001
-0.05410380 0.01029000 -0.63041800 -0.014186 -0.380452 0.924692
0.08490850 0.01171910 -0.62833601 -0.071065 0.870893 0.486307
0.09199190 0.01189320 -0.62742001 -0.193227 0.810946 0.552295
-0.08513970 0.01305370 -0.62538302 0.269636 0.892331 0.361997
0.14401300 0.01548420 -0.62899601 0.671455 0.604809 0.428198
-0.09752210 0.01591030 -0.62964898 0.152636 0.986891 0.052432
-0.10280900 0.01690830 -0.63011801 -0.063743 -0.997940 0.007315
-0.01571450 -0.08973820 -0.62626398 0.367771 0.920121 -0.134618
-0.04698710 -0.08580630 -0.62721503 -0.223510 -0.931994 0.285362
-0.07611250 -0.08502190 -0.62730497 0.479953 -0.849381 0.219537
-0.02047940 -0.08564950 -0.62614000 0.767655 0.640861 0.001378
-0.04127610 -0.08343870 -0.62557900 0.313836 -0.909394 0.272964
-0.10209900 -0.08264730 -0.63037002 -0.852050 0.487952 0.189510
0.01145760 -0.07987020 -0.62620997 -0.940325 0.335178 -0.058689
-0.05943180 -0.07829560 -0.63019001 0.109370 -0.912337 0.394562
0.01390010 -0.07368150 -0.62523001 0.712288 -0.685067 0.152741
0.07375030 -0.06579670 -0.62846601 -0.387130 -0.908977 0.154569
0.04935920 -0.05752800 -0.62602299 0.097893 -0.869691 0.483792
-0.10326500 -0.05270090 -0.62667799 0.989344 0.096949 0.108629
0.13482600 -0.04977740 -0.62783700 -0.793912 -0.591338 0.141504
0.12971000 -0.04628840 -0.62642300 0.285228 -0.900018 0.329563
-0.10402300 -0.04108460 -0.62686098 0.725628 0.179489 0.664264
-0.10477900 -0.03726510 -0.62706798 0.763375 0.110741 0.636392
-0.10438200 -0.02875500 -0.62498897 0.591349 -0.431435 0.681301
-0.10416900 -0.01649730 -0.62392801 0.999136 -0.023764 0.034097
0.15252601 0.00263915 -0.62451100 -0.858088 -0.476052 -0.192510
0.07635990 0.01044320 -0.62663198 -0.032009 0.941056 0.336732
0.09618860 0.00948293 -0.62451899 0.146530 0.708479 0.690352
-0.03068830 0.01907010 -0.62577200 -0.255994 0.864926 0.431706
-0.00839682 0.02355610 -0.62741601 0.200457 0.932193 0.301386
-0.00914367 -0.09069980 -0.62631798 0.012206 0.990871 -0.134261
-0.01251460 -0.09053350 -0.62539101 0.146981 0.986535 -0.071727
0.00642983 -0.08652890 -0.62469298 -0.679463 0.726627 -0.101698
-0.08030350 -0.08638170 -0.62417299 0.434399 -0.755690 0.490133
-0.03592220 -0.08267020 -0.63028198 -0.317612 0.947774 -0.029104
-0.03604220 -0.08156580 -0.62484998 0.259649 -0.929345 0.262487
-0.07029240 -0.08059570 -0.62561297 -0.633198 -0.562279 0.531886
-0.05657650 -0.07690490 -0.62591201 -0.187985 -0.837660 0.512823
-0.05930810 -0.07652240 -0.62668699 0.118508 -0.823703 0.554500
0.07757310 -0.06666390 -0.62664199 -0.155633 -0.935177 0.318153
0.09277840 -0.06396350 -0.62719703 0.165032 -0.965503 0.201417
0.10030500 -0.06358150 -0.62708300 0.195377 -0.752280 0.629208
0.03754290 -0.06297170 -0.62858301 0.367526 -0.769053 0.522956
0.04473490 -0.06094920 -0.62764603 -0.015213 -0.598824 0.800736
0.04712630 -0.05910630 -0.62523502 0.446264 -0.721653 0.529212
0.12549700 -0.04805580 -0.62676501 0.412421 -0.854190 0.316653
0.16083300 -0.03018140 -0.63102299 -0.996387 -0.055536 -0.064248
-0.06368530 0.00043472 -0.62481600 0.183018 0.693624 0.696700
0.05102850 0.00103813 -0.62651300 -0.142165 0.845664 0.514433
0.06251430 0.00616844 -0.62739301 -0.401483 0.897178 0.184074
0.12534700 0.00478349 -0.62492102 -0.944777 0.248915 0.213159
-0.05578180 0.00539635 -0.62420601 0.726247 -0.687365 -0.009720
0.10141800 0.00892468 -0.62624800 0.460487 0.744371 0.483594
-0.05312500 0.00817390 -0.62292498 -0.506112 0.154932 0.848438
0.08348610 0.00987246 -0.62447602 -0.045406 0.937950 0.343785
0.08864530 0.01053640 -0.62576002 -0.027851 0.903171 0.428376
-0.09785930 0.01638150 -0.62227601 -0.118242 -0.992110 0.041666
-0.04152330 0.01662110 -0.62509000 -0.492992 0.700216 0.516388
-0.03513280 0.01811770 -0.62585300 -0.228289 0.854193 0.467160
-0.10693100 -0.09158850 -0.62550700 0.943635 0.325794 0.058409
-0.10340300 -0.08495020 -0.62443000 0.746321 -0.663237 0.055867
-0.10256500 -0.07873750 -0.62407500 0.999503 -0.029487 -0.011185
-0.06351890 -0.07746110 -0.62559402 0.302264 -0.847889 0.435570
0.02151370 -0.07074870 -0.62685102 -0.353538 -0.919763 0.170431
-0.10300400 -0.06595670 -0.62905699 0.998883 0.030143 0.036380
0.02913840 -0.06504710 -0.62335902 0.459875 -0.778374 0.427375
0.06391570 -0.06395990 -0.62492597 -0.288064 -0.945338 0.152823
0.09562260 -0.06298090 -0.62493402 0.142011 -0.887929 0.437510
0.03414050 -0.06232980 -0.62451398 0.279229 -0.891443 0.356876
0.09913580 -0.06301300 -0.62549198 0.112696 -0.812290 0.572262
0.14349900 -0.05895860 -0.62436301 -0.561318 -0.816058 0.137738
0.05424810 -0.05892290 -0.62727499 -0.152268 -0.841169 0.518893
-0.10804300 -0.03670190 -0.62501800 0.841304 -0.004064 0.540548
-0.10806500 -0.03396880 -0.62467599 0.868461 -0.091789 0.487186
0.16045199 -0.03843790 -0.62506199 -0.988922 0.026054 -0.146129
-0.10552500 -0.03067340 -0.62452698 0.596028 -0.336179 0.729201
0.15972400 -0.02301610 -0.62551302 -0.992680 -0.089830 -0.080733
0.15644000 -0.00699253 -0.62457597 -0.948288 -0.273830 -0.160521
0.04683430 -0.00111293 -0.62259197 0.120586 0.733934 0.668431
0.11257600 0.00233504 -0.62681198 0.572003 0.729345 0.375326
-0.06736970 0.00274300 -0.62593597 0.360280 0.741752 0.565688
0.03619730 0.00558070 -0.62627298 0.125419 0.807109 0.576928
0.15157899 0.00594565 -0.63018399 -0.815110 -0.553915 -0.169627
0.02541830 0.00705605 -0.62554300 0.121759 0.814169 0.567718
-0.07617540 0.00901890 -0.62850797 0.497311 0.809907 0.311017
0.09704580 0.01235020 -0.62654799 -0.012551 0.701451 0.712607
-0.04655930 0.01370640 -0.62946397 -0.508570 0.760402 0.403912
0.14630800 0.01265750 -0.62858999 -0.768383 -0.635754 -0.073523
0.12836100 0.01350440 -0.62452602 -0.899048 0.404212 0.168302
-0.04414290 0.01520200 -0.62588102 -0.685778 0.646684 0.333930
0.00081411 0.01609920 -0.62318802 0.655400 0.694047 0.297909
0.13046400 0.01802840 -0.62706000 -0.592291 0.737539 0.324388
-0.02650130 0.02054350 -0.62583703 -0.283284 0.905628 0.315575
-0.01968010 0.02190480 -0.62326199 -0.289900 0.884721 0.365004
-0.00292706 0.02104130 -0.62691498 0.508993 0.796200 0.327096
-0.09452200 -0.09268030 -0.62389499 -0.182060 0.981696 0.055927
0.00137580 -0.08885110 -0.62491202 0.295789 -0.939646 0.171970
-0.04714490 -0.08529510 -0.62536597 -0.223510 -0.931994 0.285362
-0.05765710 -0.07629960 -0.62622398 -0.260568 -0.803548 0.535178
-0.10277400 -0.07292410 -0.62625599 0.996676 0.057605 0.057605
0.09321400 -0.06326700 -0.62340897 0.227824 -0.909844 0.346815
0.10334300 -0.06145100 -0.62461400 0.266474 -0.818123 0.509574
0.15127400 -0.06193230 -0.62433201 -0.005024 0.999720 0.023109
0.05131820 -0.05611730 -0.62341100 0.190598 -0.844935 0.499757
0.11794000 -0.05142940 -0.62631297 0.546374 -0.792006 0.272400
-0.10362400 -0.04930220 -0.62276602 0.902202 0.326328 0.282030
0.13577899 -0.04985680 -0.62402099 -0.795087 -0.580035 0.177191
-0.10484600 -0.03505390 -0.62686199 0.742855 -0.300030 0.598455
0.15806100 -0.01251170 -0.62612301 -0.970607 -0.211332 -0.115157
0.11697600 -0.00207459 -0.62072498 0.272102 0.847052 0.456578
0.12112400 -0.00137413 -0.62548298 -0.210716 0.835283 0.507840
0.05475700 0.00020729 -0.62037200 -0.556832 0.765443 0.322545
-0.07154830 0.00393944 -0.62453699 0.451856 0.733232 0.508131
0.03839090 0.00435692 -0.62462300 0.309216 0.913131 0.265664
0.05920560 0.00438926 -0.62596703 -0.415307 0.887846 0.198114
0.03367690 0.00314510 -0.62210101 0.057421 0.847307 0.527991
-0.07499870 0.00699235 -0.62583798 0.494948 0.766108 0.410006
0.01136290 0.00837765 -0.62251502 0.249662 0.867009 0.431235
0.08001220 0.00934715 -0.62296301 -0.074661 0.910869 0.405886
0.09148060 0.00907096 -0.62279898 0.065357 0.871894 0.485313
-0.10889600 0.01088500 -0.62358499 0.980361 0.176149 0.088682
-0.08308320 0.01119980 -0.62308800 0.326759 0.822423 0.465671
-0.10781300 0.01650890 -0.62550098 0.348474 -0.935790 0.053511
-0.01614010 0.02443590 -0.62861598 -0.150179 0.896781 0.416209
-0.10134200 -0.09432940 -0.62458700 0.027347 0.976184 0.215212
-0.10723500 -0.09089370 -0.62269503 0.988834 -0.078035 0.126953
-0.08861000 -0.09139330 -0.62394202 0.694940 -0.073991 0.715251
-0.00091584 -0.08969310 -0.62650400 0.036013 -0.902989 0.428153
-0.10655100 -0.08795380 -0.62752599 0.932572 -0.359280 0.035020
0.01010420 -0.08316640 -0.62663901 0.835112 -0.506543 0.214482
-0.05338960 -0.08176830 -0.62526798 -0.647190 -0.707914 0.282846
-0.02787340 -0.08031510 -0.62779897 -0.048699 -0.962749 0.265974
-0.05708770 -0.07391170 -0.62247902 -0.301323 -0.704162 0.642931
0.02083060 -0.06988530 -0.62361300 0.463461 -0.792890 0.395638
0.08496670 -0.06524210 -0.62420398 0.196766 -0.893466 0.403736
0.14580099 -0.05991020 -0.61949301 -0.451292 -0.890239 0.061727
0.10855100 -0.05876350 -0.62566203 0.565134 -0.763652 0.312185
0.12071300 -0.05018930 -0.62581497 0.401240 -0.844633 0.354403
-0.10386400 -0.04566240 -0.62491500 0.791542 0.361252 0.492908
-0.10495900 -0.04347480 -0.62498099 0.749242 0.303226 0.588804
0.15443601 -0.00037350 -0.62583399 -0.493440 -0.594486 0.634904
0.05123800 -0.00139939 -0.62299401 -0.312485 0.797867 0.515521
-0.05810240 -0.00060164 -0.62207198 -0.683321 0.556347 0.472811
0.10951200 0.00265544 -0.62310398 0.523297 0.731295 0.437456
-0.05451150 0.00667388 -0.62309003 -0.506112 0.154932 0.848438
0.06834910 0.00742211 -0.62391001 -0.257984 0.931845 0.255165
0.07153080 0.00838893 -0.62471700 -0.198845 0.914116 0.353344
0.12643400 0.00934556 -0.62659401 -0.942592 0.321248 0.091219
-0.08117930 0.00905329 -0.62100297 0.346921 0.766453 0.540551
-0.10880200 0.01224840 -0.62934601 -0.769965 0.364720 0.523576
-0.10870400 0.01554430 -0.62458497 0.849417 -0.489875 0.196250
-0.03447140 0.01648770 -0.62353700 -0.204594 0.835045 0.510726
-0.00134333 0.01935300 -0.62506503 0.616885 0.711290 0.336927
0.13307400 0.02014990 -0.62796801 -0.328116 0.833634 0.444291
-0.00504874 0.02090650 -0.62301898 0.394793 0.838346 0.375919
-0.10656000 -0.09335750 -0.62148303 0.714543 0.697359 0.055846
-0.10596100 -0.08693600 -0.62019801 0.786907 -0.608794 0.100736
-0.08353870 -0.08729820 -0.62363601 0.285474 -0.828343 0.482030
-0.02428390 -0.08052330 -0.62495100 -0.214926 -0.961234 0.172732
-0.05181960 -0.08283640 -0.62364101 -0.643731 -0.707944 0.290562
0.02589080 -0.06706560 -0.62364399 0.425674 -0.791462 0.438622
0.15276000 -0.06160540 -0.62506598 -0.127151 0.991779 -0.014374
0.14614201 -0.06078810 -0.62494802 -0.366288 -0.903317 0.223275
0.14202701 -0.05695300 -0.62068897 -0.696305 -0.693230 0.185989
0.11425900 -0.05254840 -0.62219799 0.658695 -0.690905 0.297943
0.13156299 -0.04416480 -0.62226999 -0.268426 -0.830102 0.488752
-0.10802100 -0.03988760 -0.62452400 0.822515 0.215166 0.526471
-0.10473400 -0.02700930 -0.62299001 0.759639 -0.410041 0.504792
-0.06101900 0.00091333 -0.62595499 -0.177523 0.787475 0.590227
0.03989960 0.00026208 -0.62081403 0.428012 0.457306 0.779536
-0.10439800 0.00590639 -0.62536800 0.795782 0.605456 -0.012413
-0.04623390 0.01147240 -0.62436098 -0.617193 0.563083 0.549555
0.00381038 0.01189250 -0.61991602 0.635796 0.766738 0.088750
-0.10029300 0.01650630 -0.62621099 -0.211174 -0.975305 0.064695
0.13455699 0.02039680 -0.62779802 -0.192439 0.816731 0.543982
